-0.871745 -6.156499 -44.817881 172.000000 170.000000 181.000000 255.000000
-0.118528 -5.129207 -28.298413 194.000000 190.000000 202.000000 255.000000
3.570355 -4.368883 -30.759788 147.000000 130.000000 138.000000 255.000000
-0.504299 1.421837 -43.198228 163.000000 166.000000 173.000000 255.000000
2.673943 2.818170 -38.114368 146.000000 135.000000 147.000000 255.000000
3.148809 -2.033475 -37.821941 230.000000 226.000000 235.000000 255.000000
10.531449 5.865107 -40.418741 18.000000 24.000000 46.000000 255.000000
10.465535 6.265572 -40.479259 226.000000 226.000000 236.000000 255.000000
10.199349 6.438992 -40.800602 80.000000 68.000000 147.000000 255.000000
10.327006 6.662379 -40.506856 74.000000 56.000000 165.000000 255.000000
10.327006 6.662379 -40.506856 74.000000 56.000000 165.000000 255.000000
10.391064 5.473305 -40.379860 183.000000 185.000000 207.000000 255.000000
10.206732 5.289055 -40.306653 36.000000 34.000000 58.000000 255.000000
10.330766 5.436429 -40.216107 75.000000 76.000000 99.000000 255.000000
1.876505 -1.370995 -39.987845 131.000000 118.000000 128.000000 255.000000
4.223205 -2.822044 -31.947425 131.000000 116.000000 121.000000 255.000000
35.294600 11.791499 -10.118703 16.000000 13.000000 42.000000 255.000000
5.416304 2.291400 2.455234 157.000000 135.000000 138.000000 255.000000
0.247700 -4.013911 -42.568837 40.000000 41.000000 45.000000 255.000000
-9.486876 -8.749016 -22.184088 187.000000 178.000000 197.000000 255.000000
14.857932 4.107983 6.717395 150.000000 134.000000 137.000000 255.000000
9.964797 7.883752 -36.938575 106.000000 129.000000 132.000000 255.000000
-0.990992 -4.286019 -44.791604 67.000000 66.000000 77.000000 255.000000
4.736544 -3.931188 -32.754370 176.000000 162.000000 162.000000 255.000000
10.204929 6.438552 -40.796682 94.000000 84.000000 171.000000 255.000000
4.029599 1.213580 -32.877007 150.000000 135.000000 130.000000 255.000000
4.091666 2.960248 -33.472829 142.000000 124.000000 122.000000 255.000000
2.305117 2.574671 -38.985524 66.000000 65.000000 70.000000 255.000000
5.588906 0.338666 1.908223 223.000000 220.000000 223.000000 255.000000
-0.793477 -4.355365 -44.657755 189.000000 187.000000 196.000000 255.000000
3.233242 -1.102432 -37.524563 161.000000 149.000000 153.000000 255.000000
-23.632556 -3.381523 -45.360206 68.000000 71.000000 78.000000 255.000000
4.245523 0.092372 -32.849343 145.000000 126.000000 132.000000 255.000000
2.783983 -2.466740 -38.166381 168.000000 159.000000 164.000000 255.000000
4.117052 -0.473407 -36.673422 203.000000 192.000000 200.000000 255.000000
2.810100 1.702642 -37.867966 172.000000 160.000000 164.000000 255.000000
2.855317 1.787898 -37.839386 132.000000 120.000000 124.000000 255.000000
2.534119 1.412793 -38.493404 160.000000 142.000000 146.000000 255.000000
2.002917 1.282525 -39.709801 153.000000 138.000000 143.000000 255.000000
10.437798 7.767949 -40.271571 65.000000 66.000000 87.000000 255.000000
10.325467 5.436649 -40.217054 75.000000 76.000000 99.000000 255.000000
0.917767 -3.902698 -41.472947 193.000000 194.000000 195.000000 255.000000
1.387643 -2.924933 -40.282416 92.000000 89.000000 100.000000 255.000000
4.039792 0.351048 -36.724598 207.000000 195.000000 199.000000 255.000000
2.468468 2.578230 -39.416711 63.000000 62.000000 67.000000 255.000000
-0.411189 -4.099478 -43.881155 61.000000 60.000000 69.000000 255.000000
2.508333 3.057300 -38.376176 125.000000 115.000000 127.000000 255.000000
2.638661 2.768129 -38.044248 120.000000 107.000000 115.000000 255.000000
10.714245 7.036504 -40.049456 198.000000 200.000000 212.000000 255.000000
10.807918 7.645670 -39.470605 226.000000 228.000000 239.000000 255.000000
2.211976 2.977670 -39.078959 173.000000 174.000000 179.000000 255.000000
10.687103 7.628243 -39.716358 172.000000 173.000000 193.000000 255.000000
10.741336 7.977081 -39.650515 221.000000 224.000000 233.000000 255.000000
10.755558 7.566922 -39.587321 173.000000 175.000000 187.000000 255.000000
4.544422 0.157132 -34.789953 141.000000 126.000000 131.000000 255.000000
4.507392 0.145245 -34.771075 141.000000 126.000000 131.000000 255.000000
4.737671 -1.937158 -34.763385 169.000000 157.000000 161.000000 255.000000
4.342411 2.370175 -35.149534 131.000000 112.000000 115.000000 255.000000
3.113948 -3.388924 -37.877251 188.000000 177.000000 185.000000 255.000000
2.876363 1.563214 -37.878281 175.000000 163.000000 167.000000 255.000000
10.831528 8.066994 -39.456191 222.000000 224.000000 236.000000 255.000000
2.408892 3.165535 -38.503003 153.000000 151.000000 157.000000 255.000000
2.629839 3.439138 -38.199057 116.000000 105.000000 113.000000 255.000000
4.254160 2.625676 -34.239948 167.000000 148.000000 150.000000 255.000000
3.157770 -3.254120 -37.792905 160.000000 149.000000 155.000000 255.000000
2.741483 2.119759 -38.127945 122.000000 114.000000 122.000000 255.000000
0.815039 -3.786780 -41.363983 132.000000 132.000000 148.000000 255.000000
11.117377 7.914753 -38.544701 70.000000 72.000000 93.000000 255.000000
1.973815 2.031692 -39.459726 155.000000 158.000000 165.000000 255.000000
10.915197 7.910720 -39.255166 219.000000 221.000000 233.000000 255.000000
1.660903 2.259266 -40.403678 208.000000 207.000000 212.000000 255.000000
2.592966 2.951854 -38.195569 99.000000 97.000000 111.000000 255.000000
1.979613 2.347120 -39.421370 216.000000 213.000000 210.000000 255.000000
1.101532 2.126475 -41.004856 202.000000 201.000000 208.000000 255.000000
2.071003 2.541166 -39.455194 54.000000 55.000000 59.000000 255.000000
4.267949 1.646051 -33.474864 110.000000 94.000000 97.000000 255.000000
3.990622 4.704297 -33.876458 114.000000 96.000000 94.000000 255.000000
0.530189 -5.856040 -42.326934 208.000000 208.000000 218.000000 255.000000
0.177458 0.164208 -42.773211 139.000000 129.000000 130.000000 255.000000
10.787315 8.079801 -39.562451 213.000000 216.000000 225.000000 255.000000
4.195959 -2.910724 -36.736883 159.000000 148.000000 156.000000 255.000000
3.941711 -2.271370 -36.858250 187.000000 176.000000 181.000000 255.000000
3.819332 5.683304 -33.973923 111.000000 91.000000 90.000000 255.000000
3.989368 -0.979717 -32.031474 152.000000 137.000000 144.000000 255.000000
4.075445 -0.202671 -36.688252 206.000000 195.000000 199.000000 255.000000
2.407752 3.166216 -38.503711 170.000000 159.000000 168.000000 255.000000
-13.607748 -7.393159 -6.497633 132.000000 123.000000 135.000000 255.000000
3.855363 4.727767 -33.459202 120.000000 102.000000 100.000000 255.000000
10.758458 7.898114 -39.686236 176.000000 179.000000 188.000000 255.000000
4.183626 -2.805301 -36.758205 221.000000 210.000000 218.000000 255.000000
1.049109 -5.058702 -41.412448 207.000000 207.000000 217.000000 255.000000
4.196857 -2.459583 -36.802832 199.000000 189.000000 197.000000 255.000000
10.855477 7.633780 -37.718205 45.000000 46.000000 67.000000 255.000000
4.163797 2.308631 -33.388431 161.000000 143.000000 141.000000 255.000000
4.261664 1.194963 -33.326813 164.000000 145.000000 149.000000 255.000000
2.623903 3.437458 -38.203272 117.000000 104.000000 110.000000 255.000000
10.722593 8.021579 -39.631798 55.000000 58.000000 67.000000 255.000000
9.509358 5.808762 -39.049313 106.000000 104.000000 113.000000 255.000000
3.117593 -1.499402 -37.721443 203.000000 192.000000 196.000000 255.000000
3.761854 5.639250 -33.456946 165.000000 145.000000 144.000000 255.000000
2.471194 3.483309 -38.385922 165.000000 154.000000 162.000000 255.000000
2.519614 3.490423 -38.394912 165.000000 154.000000 162.000000 255.000000
10.730467 7.877802 -39.633625 57.000000 60.000000 69.000000 255.000000
3.741960 5.705422 -33.323976 111.000000 91.000000 90.000000 255.000000
2.554619 3.578510 -38.171994 118.000000 104.000000 111.000000 255.000000
0.136923 -3.129075 -42.650111 109.000000 109.000000 117.000000 255.000000
2.674130 2.230459 -38.158746 179.000000 168.000000 176.000000 255.000000
11.139610 6.919113 -38.584555 214.000000 217.000000 224.000000 255.000000
11.104835 7.501367 -37.946881 30.000000 31.000000 52.000000 255.000000
10.915197 7.910720 -39.255166 218.000000 220.000000 232.000000 255.000000
10.654439 7.798167 -39.759074 211.000000 214.000000 223.000000 255.000000
11.299120 6.725278 -38.456493 235.000000 238.000000 244.000000 255.000000
10.834809 7.779750 -39.347181 25.000000 27.000000 39.000000 255.000000
10.736476 7.700830 -39.622631 45.000000 48.000000 57.000000 255.000000
10.809114 8.152747 -39.444559 204.000000 207.000000 216.000000 255.000000
11.070727 7.082121 -38.002772 227.000000 230.000000 237.000000 255.000000
-12.962699 -10.605333 -6.023904 138.000000 124.000000 137.000000 255.000000
-11.392467 7.254635 -24.030496 113.000000 99.000000 108.000000 255.000000
11.148372 7.970928 -38.794316 87.000000 88.000000 109.000000 255.000000
10.903129 7.537591 -37.722604 47.000000 48.000000 69.000000 255.000000
1.846431 -1.708029 -40.037301 183.000000 173.000000 176.000000 255.000000
2.171599 -3.565687 -39.402888 198.000000 196.000000 199.000000 255.000000
2.126325 -2.688006 -39.392696 154.000000 158.000000 170.000000 255.000000
2.069839 -2.768808 -39.247850 148.000000 148.000000 159.000000 255.000000
4.156969 -1.948087 -32.123758 157.000000 142.000000 147.000000 255.000000
4.665140 -1.838824 -34.784139 137.000000 123.000000 138.000000 255.000000
4.042473 -2.052722 -31.866685 120.000000 105.000000 112.000000 255.000000
4.224345 3.242846 -34.557359 115.000000 96.000000 98.000000 255.000000
1.165587 -2.466264 -41.193270 67.000000 67.000000 72.000000 255.000000
-0.172662 -6.073706 -43.575477 62.000000 64.000000 80.000000 255.000000
-0.637832 -5.897850 -44.391289 219.000000 219.000000 229.000000 255.000000
4.125616 0.193075 -32.809989 121.000000 105.000000 108.000000 255.000000
1.851948 2.078852 -39.190622 221.000000 221.000000 229.000000 255.000000
4.295323 2.582245 -34.161401 118.000000 100.000000 98.000000 255.000000
4.353417 0.017566 -32.930756 129.000000 110.000000 116.000000 255.000000
4.240981 2.581927 -33.946097 118.000000 100.000000 98.000000 255.000000
3.866752 6.522627 -34.219672 120.000000 102.000000 99.000000 255.000000
4.020805 1.944856 -32.869520 107.000000 88.000000 92.000000 255.000000
3.145749 -3.226804 -37.871081 188.000000 177.000000 181.000000 255.000000
3.706623 6.468629 -33.535582 132.000000 112.000000 111.000000 255.000000
3.863339 5.369010 -33.732122 187.000000 167.000000 166.000000 255.000000
3.870557 5.368078 -33.734754 187.000000 167.000000 166.000000 255.000000
4.633490 -1.198578 -34.118922 167.000000 155.000000 159.000000 255.000000
4.136093 -1.784644 -32.057707 120.000000 105.000000 110.000000 255.000000
0.742494 -5.169719 -41.862805 89.000000 95.000000 108.000000 255.000000
3.747001 5.454560 -33.321235 112.000000 92.000000 91.000000 255.000000
4.033125 -1.197330 -32.073180 115.000000 99.000000 109.000000 255.000000
1.796048 -3.705800 -40.124654 200.000000 202.000000 201.000000 255.000000
2.246259 -3.721977 -38.978528 202.000000 202.000000 205.000000 255.000000
2.126869 2.177740 -39.412818 81.000000 81.000000 89.000000 255.000000
2.442836 2.156867 -38.506904 194.000000 185.000000 191.000000 255.000000
2.303928 3.023212 -38.581461 117.000000 114.000000 120.000000 255.000000
3.773338 3.900764 -32.835254 113.000000 95.000000 93.000000 255.000000
3.577681 3.934611 -32.473972 110.000000 92.000000 90.000000 255.000000
3.879619 6.986974 -34.397004 151.000000 133.000000 131.000000 255.000000
4.435879 -1.859947 -32.695973 152.000000 140.000000 144.000000 255.000000
3.983805 1.994708 -32.727285 116.000000 97.000000 101.000000 255.000000
3.867101 4.618263 -36.312656 145.000000 131.000000 128.000000 255.000000
11.149843 8.018435 -38.822255 21.000000 22.000000 42.000000 255.000000
3.552898 5.728325 -33.022524 115.000000 95.000000 94.000000 255.000000
3.942551 3.908716 -33.239455 113.000000 95.000000 93.000000 255.000000
3.861140 4.326722 -33.251057 111.000000 93.000000 91.000000 255.000000
3.594688 4.218432 -32.478825 102.000000 84.000000 83.000000 255.000000
4.269083 -2.876703 -36.661590 195.000000 189.000000 193.000000 255.000000
3.470211 2.364266 -31.917931 131.000000 112.000000 116.000000 255.000000
3.967894 -2.523502 -31.630900 121.000000 105.000000 115.000000 255.000000
3.053983 7.153452 -32.414722 94.000000 76.000000 75.000000 255.000000
3.945511 4.314142 -33.473324 114.000000 96.000000 94.000000 255.000000
3.591935 2.970578 -32.231321 111.000000 92.000000 94.000000 255.000000
3.788179 5.864832 -33.416741 116.000000 96.000000 95.000000 255.000000
4.182090 3.692693 -34.229582 120.000000 102.000000 100.000000 255.000000
2.422045 3.552517 -38.476531 114.000000 102.000000 111.000000 255.000000
1.580510 1.327359 -40.126755 155.000000 153.000000 154.000000 255.000000
3.577109 7.808181 -33.737871 85.000000 69.000000 72.000000 255.000000
3.533486 7.130268 -33.178619 106.000000 86.000000 89.000000 255.000000
2.956200 6.182459 -31.975495 104.000000 84.000000 84.000000 255.000000
2.515458 3.543119 -38.315729 106.000000 94.000000 101.000000 255.000000
3.218398 2.424624 -31.519977 96.000000 81.000000 88.000000 255.000000
4.220070 2.728472 -33.974934 123.000000 105.000000 103.000000 255.000000
4.054785 4.169451 -33.582571 120.000000 102.000000 100.000000 255.000000
3.273223 4.651948 -32.057602 110.000000 92.000000 90.000000 255.000000
3.390991 4.212855 -32.282677 101.000000 83.000000 80.000000 255.000000
3.786328 5.571183 -33.392607 123.000000 103.000000 102.000000 255.000000
2.944021 7.684552 -32.369929 118.000000 99.000000 98.000000 255.000000
9.071925 4.236658 -41.381026 213.000000 213.000000 221.000000 255.000000
3.479675 1.114527 -31.666499 134.000000 119.000000 124.000000 255.000000
2.777015 1.528871 -38.246317 187.000000 176.000000 177.000000 255.000000
2.093956 -2.702421 -39.394839 143.000000 143.000000 154.000000 255.000000
4.377699 1.635130 -34.626311 186.000000 172.000000 171.000000 255.000000
3.633143 5.604898 -32.950623 122.000000 102.000000 101.000000 255.000000
4.697741 -1.847142 -34.848413 137.000000 127.000000 128.000000 255.000000
4.702858 -1.844685 -34.850761 137.000000 127.000000 128.000000 255.000000
11.250340 7.521230 -38.056997 47.000000 48.000000 68.000000 255.000000
4.101531 4.871585 -35.367937 119.000000 101.000000 97.000000 255.000000
4.218628 1.484005 -33.281994 131.000000 112.000000 116.000000 255.000000
11.212574 8.058233 -38.373188 39.000000 41.000000 62.000000 255.000000
1.325817 -3.618763 -40.139204 129.000000 132.000000 150.000000 255.000000
4.264179 2.345594 -33.854475 141.000000 123.000000 121.000000 255.000000
10.451059 7.836392 -37.268831 41.000000 42.000000 64.000000 255.000000
10.752320 7.070169 -37.584555 159.000000 161.000000 175.000000 255.000000
10.933380 8.027783 -39.233634 13.000000 16.000000 25.000000 255.000000
10.994286 7.160333 -37.820902 98.000000 100.000000 112.000000 255.000000
3.112686 7.299320 -32.570042 85.000000 68.000000 70.000000 255.000000
1.996693 -5.485105 -39.671656 211.000000 210.000000 223.000000 255.000000
4.194789 2.158035 -33.604827 154.000000 135.000000 138.000000 255.000000
3.935561 5.032914 -33.744125 107.000000 87.000000 86.000000 255.000000
-23.171876 -18.387621 -44.893412 101.000000 105.000000 124.000000 255.000000
2.222141 2.128651 -38.660583 92.000000 91.000000 97.000000 255.000000
6.127994 -3.091648 -40.821826 178.000000 178.000000 188.000000 255.000000
3.131699 8.281302 -32.808531 119.000000 102.000000 114.000000 255.000000
1.788218 -1.981654 -40.059746 176.000000 163.000000 173.000000 255.000000
3.842978 3.331255 -32.985313 138.000000 120.000000 116.000000 255.000000
3.734130 5.554891 -33.397605 123.000000 103.000000 102.000000 255.000000
10.548693 5.936771 -39.989817 200.000000 204.000000 216.000000 255.000000
3.535008 -0.444676 -31.499724 113.000000 98.000000 105.000000 255.000000
10.823327 6.209795 -39.639160 225.000000 228.000000 243.000000 255.000000
3.974187 -1.191304 -31.957300 109.000000 93.000000 103.000000 255.000000
4.242186 3.101431 -34.602347 138.000000 121.000000 119.000000 255.000000
4.660756 -0.493820 -34.269421 140.000000 128.000000 132.000000 255.000000
1.697646 0.556536 -40.098901 148.000000 136.000000 140.000000 255.000000
3.900114 5.976622 -33.853651 103.000000 83.000000 82.000000 255.000000
2.228219 -3.642406 -39.177610 212.000000 209.000000 208.000000 255.000000
0.847671 2.060175 -40.811071 183.000000 182.000000 179.000000 255.000000
2.552867 -1.984983 -38.701399 178.000000 167.000000 175.000000 255.000000
3.871408 4.327398 -33.256911 103.000000 85.000000 83.000000 255.000000
3.848414 0.984005 -32.327212 109.000000 90.000000 94.000000 255.000000
4.508720 -1.314425 -33.123218 156.000000 142.000000 147.000000 255.000000
4.124880 3.656992 -33.896979 159.000000 141.000000 139.000000 255.000000
3.764795 8.112490 -34.312952 120.000000 103.000000 110.000000 255.000000
8.113291 4.421150 -39.464643 117.000000 116.000000 121.000000 255.000000
3.425408 7.316746 -32.936795 101.000000 86.000000 91.000000 255.000000
-0.091044 -5.808790 -43.259375 128.000000 132.000000 144.000000 255.000000
11.046662 7.530230 -39.126190 81.000000 83.000000 98.000000 255.000000
0.496915 -5.988738 -42.420916 38.000000 43.000000 51.000000 255.000000
3.385503 4.225449 -37.426076 180.000000 166.000000 163.000000 255.000000
2.971105 -3.602856 -38.047293 158.000000 147.000000 151.000000 255.000000
3.222759 7.138951 -32.597800 97.000000 79.000000 79.000000 255.000000
3.748164 5.728850 -33.189141 117.000000 97.000000 96.000000 255.000000
3.614121 6.568925 -33.434339 107.000000 87.000000 86.000000 255.000000
3.862304 4.742890 -33.317181 129.000000 111.000000 109.000000 255.000000
3.349584 -3.169985 -37.527015 197.000000 191.000000 193.000000 255.000000
2.369094 2.588951 -38.859212 50.000000 50.000000 52.000000 255.000000
3.315612 2.404272 -31.693778 101.000000 84.000000 91.000000 255.000000
4.106751 2.902700 -33.413620 115.000000 97.000000 95.000000 255.000000
3.857085 5.438479 -33.709854 130.000000 110.000000 109.000000 255.000000
4.245989 1.508774 -33.280591 120.000000 101.000000 105.000000 255.000000
4.259000 1.215353 -33.391256 137.000000 118.000000 122.000000 255.000000
11.238316 8.024855 -38.332406 53.000000 55.000000 76.000000 255.000000
3.410406 2.269417 -31.812480 108.000000 89.000000 93.000000 255.000000
3.034204 7.101427 -32.310303 125.000000 109.000000 106.000000 255.000000
3.879404 6.180601 -34.105111 152.000000 134.000000 135.000000 255.000000
3.545887 5.656894 -32.887123 184.000000 164.000000 163.000000 255.000000
2.169231 4.026454 -38.840778 68.000000 67.000000 72.000000 255.000000
1.663596 -5.510878 -40.350963 92.000000 91.000000 106.000000 255.000000
2.347272 3.021054 -38.806520 168.000000 167.000000 174.000000 255.000000
2.274405 2.008134 -38.676461 113.000000 114.000000 119.000000 255.000000
10.189094 5.284694 -40.309386 48.000000 53.000000 75.000000 255.000000
-0.038973 2.173038 -43.051953 167.000000 166.000000 169.000000 255.000000
4.625215 -2.578061 -33.119106 142.000000 131.000000 132.000000 255.000000
3.644010 4.643521 -32.744287 111.000000 93.000000 91.000000 255.000000
4.237527 -2.903200 -36.740059 154.000000 152.000000 155.000000 255.000000
3.663143 2.130629 -32.178702 111.000000 96.000000 94.000000 255.000000
3.951731 3.907607 -33.246778 116.000000 98.000000 96.000000 255.000000
2.775433 5.341483 -31.595669 88.000000 73.000000 70.000000 255.000000
3.847889 5.819045 -34.052167 133.000000 115.000000 111.000000 255.000000
4.302152 1.135671 -33.516052 166.000000 151.000000 148.000000 255.000000
3.422914 3.945099 -32.145578 112.000000 94.000000 92.000000 255.000000
3.860651 6.517027 -34.224703 114.000000 96.000000 94.000000 255.000000
2.056135 1.048632 -39.438697 168.000000 158.000000 159.000000 255.000000
1.547245 1.999499 -39.619136 36.000000 37.000000 46.000000 255.000000
3.113332 5.987278 -32.220584 144.000000 124.000000 123.000000 255.000000
4.144641 2.972813 -33.636163 169.000000 151.000000 149.000000 255.000000
2.403192 3.183191 -38.272937 172.000000 156.000000 165.000000 255.000000
3.443527 -4.323218 -37.255671 192.000000 186.000000 186.000000 255.000000
4.241425 -3.508868 -36.687312 162.000000 160.000000 163.000000 255.000000
3.296936 -3.205343 -37.504289 197.000000 191.000000 191.000000 255.000000
3.819130 -1.229629 -31.659520 134.000000 119.000000 124.000000 255.000000
3.967952 5.720280 -34.479393 160.000000 142.000000 138.000000 255.000000
3.504653 -4.342564 -37.349003 162.000000 156.000000 156.000000 255.000000
4.256755 2.038785 -33.722951 138.000000 120.000000 118.000000 255.000000
4.364411 -2.981394 -36.621440 197.000000 195.000000 198.000000 255.000000
3.442268 -3.732082 -37.331743 184.000000 178.000000 178.000000 255.000000
3.558428 -4.094298 -37.429695 196.000000 186.000000 185.000000 255.000000
3.708114 -1.376228 -31.481846 138.000000 123.000000 128.000000 255.000000
3.623598 2.319483 -32.127441 143.000000 127.000000 127.000000 255.000000
4.241697 2.071831 -33.781837 172.000000 154.000000 152.000000 255.000000
4.449900 -2.820698 -32.491986 126.000000 114.000000 117.000000 255.000000
1.689378 -5.625408 -40.337737 65.000000 67.000000 79.000000 255.000000
3.914347 -1.123699 -31.845142 143.000000 128.000000 133.000000 255.000000
4.047528 4.167483 -34.376575 189.000000 174.000000 167.000000 255.000000
2.830842 -2.365710 -38.210630 236.000000 237.000000 242.000000 255.000000
4.696790 -1.435801 -34.484841 138.000000 128.000000 129.000000 255.000000
4.417549 0.067812 -33.241814 174.000000 158.000000 159.000000 255.000000
17.971246 10.554058 -26.475701 218.000000 222.000000 232.000000 255.000000
3.753130 -3.061453 1.797720 133.000000 134.000000 138.000000 255.000000
10.820351 7.232569 -37.696039 182.000000 184.000000 197.000000 255.000000
10.181374 7.832295 -37.042933 139.000000 158.000000 169.000000 255.000000
0.077694 -2.554556 -43.101341 173.000000 160.000000 172.000000 255.000000
2.479592 2.085617 -38.472157 177.000000 174.000000 183.000000 255.000000
-6.055869 5.637453 -26.531960 82.000000 73.000000 83.000000 255.000000
9.553513 8.618570 3.139735 207.000000 207.000000 211.000000 255.000000
-0.209522 1.558774 -43.067600 177.000000 180.000000 182.000000 255.000000
4.040512 0.257215 -32.447647 119.000000 100.000000 106.000000 255.000000
4.300221 -1.843549 -32.377090 149.000000 134.000000 139.000000 255.000000
11.398332 7.358195 -38.282643 168.000000 170.000000 183.000000 255.000000
3.157990 7.998429 -32.827747 95.000000 79.000000 80.000000 255.000000
2.680077 6.323792 -31.741579 99.000000 82.000000 83.000000 255.000000
4.591508 -2.440087 -33.061142 194.000000 183.000000 181.000000 255.000000
4.012970 4.033089 -33.481811 109.000000 91.000000 89.000000 255.000000
4.025729 4.035221 -33.481243 109.000000 91.000000 89.000000 255.000000
3.210412 5.905836 -32.291368 105.000000 87.000000 85.000000 255.000000
-0.346206 -4.478218 -43.690700 118.000000 122.000000 123.000000 255.000000
3.436528 -3.790768 -37.399022 150.000000 144.000000 144.000000 255.000000
4.284579 2.667501 -34.919807 132.000000 116.000000 117.000000 255.000000
3.184074 0.528618 -31.286034 154.000000 139.000000 136.000000 255.000000
3.335175 -2.204679 -37.879320 232.000000 231.000000 236.000000 255.000000
10.847948 8.246804 -39.361965 214.000000 217.000000 222.000000 255.000000
2.534080 2.704174 -38.316581 151.000000 146.000000 152.000000 255.000000
4.830283 -2.367767 -34.245683 147.000000 137.000000 138.000000 255.000000
4.824080 -2.371336 -34.243943 147.000000 137.000000 138.000000 255.000000
4.020933 1.248174 -32.675007 114.000000 98.000000 99.000000 255.000000
7.756036 4.033340 -40.984416 88.000000 88.000000 96.000000 255.000000
3.525631 6.025973 -33.024379 109.000000 89.000000 88.000000 255.000000
4.150727 1.954426 -33.094982 124.000000 109.000000 106.000000 255.000000
4.124023 3.741952 -33.716695 129.000000 111.000000 109.000000 255.000000
3.762800 5.315380 -36.464263 135.000000 117.000000 113.000000 255.000000
4.009585 5.592391 -34.476301 166.000000 148.000000 144.000000 255.000000
4.083572 -0.854180 -32.235237 151.000000 139.000000 141.000000 255.000000
-0.451356 -3.379018 -43.772322 86.000000 90.000000 101.000000 255.000000
10.636965 7.340027 -40.122840 114.000000 116.000000 129.000000 255.000000
2.515672 2.604530 -38.478020 69.000000 67.000000 72.000000 255.000000
3.281316 -4.363241 -37.636705 193.000000 187.000000 187.000000 255.000000
2.503744 2.909202 -38.393425 161.000000 156.000000 162.000000 255.000000
4.044367 2.025460 -32.876025 143.000000 128.000000 125.000000 255.000000
4.603097 -2.596833 -32.963917 128.000000 118.000000 119.000000 255.000000
4.774026 -3.281741 -33.273108 138.000000 128.000000 129.000000 255.000000
3.781044 3.754596 -32.785415 144.000000 126.000000 124.000000 255.000000
4.240541 0.795382 -33.333640 136.000000 121.000000 118.000000 255.000000
3.365789 5.203118 -32.415010 113.000000 95.000000 93.000000 255.000000
4.167513 -2.677825 -36.976949 153.000000 147.000000 148.000000 255.000000
4.011458 4.912608 -35.531351 162.000000 147.000000 142.000000 255.000000
3.171127 5.214634 -32.093273 103.000000 85.000000 83.000000 255.000000
3.754947 3.483545 -32.817452 112.000000 94.000000 92.000000 255.000000
4.849264 -3.976772 -35.708365 193.000000 182.000000 186.000000 255.000000
3.344232 -4.903846 -37.734246 179.000000 173.000000 173.000000 255.000000
3.593981 7.338882 -33.441056 145.000000 124.000000 124.000000 255.000000
3.366096 -4.914762 -37.599441 186.000000 180.000000 180.000000 255.000000
3.341448 -4.967238 -37.666403 140.000000 134.000000 134.000000 255.000000
3.209703 3.879034 -31.859210 143.000000 125.000000 123.000000 255.000000
3.709186 5.784526 -33.275289 164.000000 144.000000 143.000000 255.000000
4.254641 -3.155425 -36.645928 195.000000 193.000000 196.000000 255.000000
3.113179 -5.145047 -37.918965 170.000000 161.000000 162.000000 255.000000
4.235913 2.994063 -34.373063 122.000000 103.000000 105.000000 255.000000
-9.315980 -0.203203 -45.752601 81.000000 81.000000 89.000000 255.000000
0.190456 -5.342971 -0.777701 159.000000 147.000000 158.000000 255.000000
1.681264 -8.088293 -0.408207 191.000000 191.000000 202.000000 255.000000
-1.029371 -4.636745 -45.027393 132.000000 132.000000 142.000000 255.000000
2.356098 -5.399951 -39.169793 72.000000 72.000000 83.000000 255.000000
3.913265 4.733780 -33.620411 113.000000 95.000000 93.000000 255.000000
2.847944 1.634372 -38.023567 151.000000 142.000000 143.000000 255.000000
40.860261 11.923615 -14.256330 203.000000 169.000000 162.000000 255.000000
10.773542 7.839976 -39.586086 187.000000 190.000000 199.000000 255.000000
3.811709 5.015536 -33.330690 118.000000 98.000000 97.000000 255.000000
3.796292 6.669038 -34.027277 105.000000 85.000000 84.000000 255.000000
40.450681 11.978382 -14.418198 188.000000 199.000000 210.000000 255.000000
3.179902 -3.271759 -37.795468 165.000000 154.000000 158.000000 255.000000
14.478410 1.747876 6.598064 161.000000 139.000000 145.000000 255.000000
2.623083 5.970901 -31.588073 125.000000 109.000000 110.000000 255.000000
3.812844 -2.519384 -31.381459 132.000000 116.000000 126.000000 255.000000
3.351697 0.649452 -31.392642 114.000000 98.000000 99.000000 255.000000
2.575050 8.163959 -31.867696 118.000000 100.000000 103.000000 255.000000
3.979988 3.715554 -36.338101 168.000000 154.000000 153.000000 255.000000
5.157997 -7.944083 2.212450 161.000000 165.000000 181.000000 255.000000
3.084534 4.787558 -31.847513 100.000000 82.000000 80.000000 255.000000
2.832174 2.146166 -37.831134 190.000000 179.000000 186.000000 255.000000
4.077572 1.952533 -33.004373 121.000000 106.000000 103.000000 255.000000
3.007605 7.874181 -32.502163 104.000000 85.000000 87.000000 255.000000
2.521668 2.604487 -38.475279 69.000000 67.000000 72.000000 255.000000
3.646920 0.431897 -31.769707 152.000000 133.000000 135.000000 255.000000
1.705508 2.276921 -39.920398 209.000000 210.000000 217.000000 255.000000
3.500769 8.211244 -33.536990 121.000000 102.000000 111.000000 255.000000
1.770276 2.734011 -39.995156 78.000000 77.000000 92.000000 255.000000
-0.453468 8.317076 -29.980303 77.000000 78.000000 92.000000 255.000000
10.211776 6.253726 -40.771814 123.000000 114.000000 178.000000 255.000000
4.203216 0.209282 -32.807658 123.000000 107.000000 110.000000 255.000000
39.413348 11.817942 -13.852006 77.000000 27.000000 52.000000 255.000000
2.222856 2.147756 -38.761212 226.000000 226.000000 231.000000 255.000000
0.800214 -5.771033 -41.893096 204.000000 210.000000 214.000000 255.000000
-0.198143 -4.904325 -28.364460 128.000000 125.000000 137.000000 255.000000
3.265703 3.795912 -31.940261 105.000000 87.000000 85.000000 255.000000
-0.528857 -3.303654 -43.958659 141.000000 145.000000 156.000000 255.000000
1.766928 -5.574412 -40.098079 208.000000 208.000000 220.000000 255.000000
3.999089 -0.707964 -32.084689 141.000000 129.000000 131.000000 255.000000
3.666625 -1.833387 -31.314869 130.000000 115.000000 122.000000 255.000000
4.141953 1.591485 -33.141771 153.000000 138.000000 136.000000 255.000000
3.300335 2.879245 -31.785156 130.000000 112.000000 116.000000 255.000000
3.729481 5.646593 -33.352695 197.000000 177.000000 176.000000 255.000000
3.800491 1.223009 -32.185653 138.000000 122.000000 123.000000 255.000000
3.396348 3.997604 -32.202516 142.000000 124.000000 122.000000 255.000000
39.413348 11.817942 -13.852006 77.000000 27.000000 52.000000 255.000000
3.447930 4.876855 -37.428412 131.000000 119.000000 119.000000 255.000000
1.525685 -3.961164 -40.294269 87.000000 85.000000 91.000000 255.000000
3.491188 -4.628445 -37.322092 148.000000 142.000000 142.000000 255.000000
39.964732 11.937546 -14.279017 215.000000 218.000000 233.000000 255.000000
-35.060366 -2.580232 -8.550081 186.000000 195.000000 216.000000 255.000000
10.690615 7.050070 -37.437439 15.000000 17.000000 30.000000 255.000000
10.677750 7.047594 -37.436405 15.000000 17.000000 30.000000 255.000000
3.109075 8.200347 -32.828054 130.000000 110.000000 112.000000 255.000000
3.668984 8.039320 -34.548200 92.000000 75.000000 77.000000 255.000000
4.730378 -1.680705 -34.755998 182.000000 172.000000 173.000000 255.000000
4.553402 -3.006884 -32.621383 160.000000 150.000000 151.000000 255.000000
4.553763 -3.002626 -32.621108 160.000000 150.000000 151.000000 255.000000
4.398963 -3.515834 -32.084922 132.000000 117.000000 122.000000 255.000000
3.641356 -0.542820 -31.555175 139.000000 124.000000 129.000000 255.000000
10.927291 8.026911 -39.229997 24.000000 26.000000 35.000000 255.000000
4.220771 -0.045503 -32.634421 157.000000 141.000000 144.000000 255.000000
10.934999 7.423385 -37.686239 121.000000 123.000000 138.000000 255.000000
3.855185 -0.563239 -31.891727 151.000000 138.000000 140.000000 255.000000
4.392339 1.488786 -34.747275 184.000000 170.000000 170.000000 255.000000
39.910640 12.014068 -14.163742 217.000000 220.000000 235.000000 255.000000
10.167896 6.964141 -37.217257 29.000000 31.000000 44.000000 255.000000
10.729921 6.089090 -39.388027 183.000000 190.000000 209.000000 255.000000
10.500619 6.156357 -38.703341 180.000000 183.000000 198.000000 255.000000
2.523111 3.452073 -38.315456 123.000000 109.000000 110.000000 255.000000
39.869581 12.107585 -14.142994 228.000000 231.000000 246.000000 255.000000
40.040848 11.698060 -14.337997 207.000000 214.000000 229.000000 255.000000
39.951817 11.764570 -14.327714 183.000000 191.000000 204.000000 255.000000
39.489493 12.534455 -13.978990 177.000000 180.000000 198.000000 255.000000
11.353816 6.814815 -38.470850 216.000000 219.000000 225.000000 255.000000
39.891499 11.990128 -14.244990 168.000000 171.000000 186.000000 255.000000
9.118090 6.787944 -36.880423 216.000000 215.000000 225.000000 255.000000
29.824116 13.284250 -6.778878 226.000000 228.000000 240.000000 255.000000
10.237536 6.406078 -40.603271 118.000000 106.000000 186.000000 255.000000
3.934999 4.310507 -33.472480 107.000000 89.000000 87.000000 255.000000
2.533739 2.099687 -38.492779 184.000000 183.000000 188.000000 255.000000
27.281839 7.081510 10.200806 208.000000 210.000000 215.000000 255.000000
2.580293 2.432836 -38.499302 218.000000 207.000000 215.000000 255.000000
15.364449 -4.135253 4.943650 188.000000 178.000000 187.000000 255.000000
12.654070 10.680776 5.659595 150.000000 135.000000 140.000000 255.000000
3.584597 -2.376447 -31.099949 113.000000 97.000000 107.000000 255.000000
0.805078 -5.465894 -41.866941 219.000000 222.000000 229.000000 255.000000
3.976739 3.789538 -36.282850 126.000000 107.000000 109.000000 255.000000
14.923426 -4.210502 5.778022 41.000000 33.000000 44.000000 255.000000
14.559958 1.272351 6.961746 155.000000 148.000000 154.000000 255.000000
1.049838 2.480992 -40.215097 60.000000 60.000000 71.000000 255.000000
2.188569 2.161708 -38.728389 227.000000 229.000000 235.000000 255.000000
14.559958 1.272351 6.961746 155.000000 148.000000 154.000000 255.000000
15.265214 -4.395476 5.190131 219.000000 213.000000 222.000000 255.000000
14.727093 1.994802 7.358389 147.000000 133.000000 128.000000 255.000000
3.689802 8.016298 -33.974328 111.000000 94.000000 98.000000 255.000000
2.358717 2.729251 -38.583232 146.000000 146.000000 144.000000 255.000000
12.532928 9.848877 4.736439 114.000000 102.000000 102.000000 255.000000
3.963338 1.990620 -32.723625 121.000000 106.000000 103.000000 255.000000
4.333052 1.180276 -34.005183 147.000000 132.000000 129.000000 255.000000
13.715075 1.803493 6.175135 81.000000 69.000000 71.000000 255.000000
12.435395 9.170304 5.136548 111.000000 98.000000 96.000000 255.000000
3.956779 4.929637 -34.537102 155.000000 140.000000 133.000000 255.000000
16.542692 -5.692643 6.429888 225.000000 226.000000 234.000000 255.000000
15.544782 -6.399839 7.023644 140.000000 145.000000 151.000000 255.000000
3.742258 4.100530 -32.890949 144.000000 126.000000 124.000000 255.000000
2.551420 1.561615 -30.768801 123.000000 106.000000 114.000000 255.000000
-0.193198 9.201424 -12.442879 35.000000 37.000000 60.000000 255.000000
4.227200 -2.824413 -31.950662 124.000000 109.000000 114.000000 255.000000
4.063537 5.037397 -35.171635 135.000000 117.000000 113.000000 255.000000
-4.581751 -7.053983 -25.534840 170.000000 162.000000 177.000000 255.000000
2.377599 -5.619393 -39.064276 56.000000 59.000000 71.000000 255.000000
1.542457 -3.629699 -40.281238 81.000000 79.000000 85.000000 255.000000
3.138197 -4.828446 -37.925344 178.000000 172.000000 172.000000 255.000000
15.830528 -5.822996 6.407771 228.000000 230.000000 237.000000 255.000000
17.034383 -6.174419 7.322198 106.000000 110.000000 121.000000 255.000000
-11.145003 5.017332 -24.039063 214.000000 213.000000 224.000000 255.000000
1.845122 2.306345 -39.673492 211.000000 213.000000 217.000000 255.000000
-1.050627 -4.228221 -44.743951 76.000000 76.000000 87.000000 255.000000
11.056039 8.096221 -38.516069 36.000000 38.000000 58.000000 255.000000
3.859649 8.134095 -34.736820 104.000000 91.000000 95.000000 255.000000
1.557435 2.414236 -40.498065 43.000000 44.000000 47.000000 255.000000
-9.737362 -5.760654 -23.300212 61.000000 67.000000 93.000000 255.000000
-11.242682 5.038303 -23.653607 75.000000 66.000000 82.000000 255.000000
-5.916739 -1.691783 -26.000686 115.000000 104.000000 116.000000 255.000000
-11.151166 5.531953 -23.898033 101.000000 93.000000 106.000000 255.000000
20.887309 12.459213 -4.629273 235.000000 238.000000 249.000000 255.000000
-0.788968 -2.958260 -42.619393 169.000000 159.000000 167.000000 255.000000
3.025244 7.578508 -32.429114 89.000000 75.000000 75.000000 255.000000
4.073035 -3.627449 -31.549361 106.000000 90.000000 100.000000 255.000000
2.310451 2.945785 -38.704640 160.000000 159.000000 164.000000 255.000000
4.738713 -3.449055 -35.586792 194.000000 186.000000 189.000000 255.000000
-9.769865 -8.491959 -22.396979 58.000000 47.000000 64.000000 255.000000
3.017013 8.136305 -32.517146 105.000000 87.000000 88.000000 255.000000
4.155058 -3.672306 -31.641905 146.000000 131.000000 136.000000 255.000000
4.784057 -2.050106 -34.135031 176.000000 164.000000 168.000000 255.000000
-4.685867 -6.966849 -25.487324 63.000000 56.000000 71.000000 255.000000
2.105091 -5.550071 -39.477989 86.000000 89.000000 106.000000 255.000000
2.085961 -2.768949 -39.245097 93.000000 96.000000 105.000000 255.000000
3.602953 4.577491 -37.139011 167.000000 155.000000 155.000000 255.000000
4.502919 -1.319182 -33.123025 156.000000 142.000000 147.000000 255.000000
2.361441 -5.273710 -39.181481 94.000000 102.000000 111.000000 255.000000
-1.337302 5.581546 -28.868222 210.000000 217.000000 225.000000 255.000000
11.169197 6.610604 -38.309663 183.000000 173.000000 180.000000 255.000000
4.219228 1.361143 -33.360457 164.000000 150.000000 147.000000 255.000000
2.577624 2.944370 -38.192532 113.000000 112.000000 115.000000 255.000000
9.526094 7.268054 -36.880282 39.000000 37.000000 52.000000 255.000000
7.239079 4.007972 -40.591237 78.000000 82.000000 89.000000 255.000000
2.327177 3.264322 -38.592187 119.000000 118.000000 121.000000 255.000000
3.581712 -0.291742 -31.555146 136.000000 120.000000 121.000000 255.000000
2.562869 7.311789 -31.755697 102.000000 85.000000 83.000000 255.000000
4.131211 4.086479 -34.619910 139.000000 124.000000 119.000000 255.000000
4.038272 -1.258348 -32.015937 151.000000 137.000000 137.000000 255.000000
3.474850 2.778261 -32.104526 150.000000 132.000000 128.000000 255.000000
3.548543 0.002124 -31.578238 142.000000 126.000000 127.000000 255.000000
-1.352557 5.712648 -29.037865 202.000000 198.000000 209.000000 255.000000
3.379314 1.656300 -31.694177 138.000000 122.000000 123.000000 255.000000
11.257555 7.484805 -38.073332 15.000000 17.000000 30.000000 255.000000
11.316733 7.442726 -38.293937 192.000000 194.000000 206.000000 255.000000
2.505081 3.423581 -38.302794 121.000000 116.000000 118.000000 255.000000
11.384986 7.509723 -38.334160 57.000000 59.000000 71.000000 255.000000
10.709091 6.770344 -39.892984 121.000000 113.000000 117.000000 255.000000
4.030046 -3.525999 -31.483212 143.000000 128.000000 131.000000 255.000000
10.226650 6.215401 -40.767996 128.000000 128.000000 159.000000 255.000000
9.520875 5.879702 -38.988238 84.000000 86.000000 98.000000 255.000000
10.621015 7.727905 -39.719174 178.000000 180.000000 190.000000 255.000000
16.108384 12.660473 2.813403 229.000000 229.000000 239.000000 255.000000
3.970322 -2.596965 -31.607698 134.000000 118.000000 121.000000 255.000000
10.988928 7.157286 -37.821047 97.000000 100.000000 109.000000 255.000000
4.182964 -4.276075 -36.764139 167.000000 156.000000 164.000000 255.000000
4.742091 -3.411538 -33.171025 184.000000 171.000000 171.000000 255.000000
-14.144418 4.197802 -7.005300 129.000000 117.000000 119.000000 255.000000
10.636737 7.361322 -40.087252 35.000000 37.000000 50.000000 255.000000
10.692523 8.249017 -39.664457 96.000000 99.000000 109.000000 255.000000
2.057241 4.122961 -39.005506 100.000000 98.000000 110.000000 255.000000
15.309603 -0.280793 7.602655 214.000000 219.000000 231.000000 255.000000
15.469251 6.114666 5.052077 142.000000 141.000000 139.000000 255.000000
-22.052625 2.170189 -17.446195 116.000000 105.000000 118.000000 255.000000
2.524890 3.135199 -38.342824 110.000000 99.000000 112.000000 255.000000
-3.416378 2.850485 4.694015 80.000000 79.000000 85.000000 255.000000
-0.466342 6.779148 7.097549 36.000000 37.000000 42.000000 255.000000
-28.674378 -5.867931 -47.000022 158.000000 143.000000 152.000000 255.000000
0.537946 3.605007 4.216129 66.000000 65.000000 70.000000 255.000000
15.063102 5.372577 8.039885 239.000000 238.000000 237.000000 255.000000
3.303961 3.331910 -31.856140 132.000000 114.000000 112.000000 255.000000
3.756234 8.019958 -34.828015 96.000000 80.000000 81.000000 255.000000
0.507689 -5.874220 -42.331993 203.000000 202.000000 217.000000 255.000000
9.906003 7.877407 4.901478 96.000000 94.000000 95.000000 255.000000
-5.290866 0.445027 -43.538919 53.000000 54.000000 65.000000 255.000000
3.129528 -3.383203 -37.882653 194.000000 183.000000 187.000000 255.000000
4.021720 1.946953 -32.865408 113.000000 94.000000 98.000000 255.000000
4.057022 3.395818 -33.502139 160.000000 142.000000 140.000000 255.000000
4.024008 4.149057 -33.676680 120.000000 102.000000 100.000000 255.000000
2.321060 3.705641 -38.564564 158.000000 156.000000 161.000000 255.000000
3.933954 4.990198 -33.984026 131.000000 116.000000 111.000000 255.000000
3.883167 4.791247 -33.515282 181.000000 163.000000 161.000000 255.000000
3.258427 1.838646 -31.489183 104.000000 88.000000 91.000000 255.000000
38.740663 12.380265 -13.362432 31.000000 33.000000 58.000000 255.000000
39.924737 12.005893 -14.278062 214.000000 211.000000 232.000000 255.000000
4.263980 1.493920 -33.408793 135.000000 119.000000 122.000000 255.000000
39.266357 11.926504 -13.641916 184.000000 192.000000 206.000000 255.000000
0.781841 -3.994398 -41.339783 192.000000 191.000000 199.000000 255.000000
3.829218 -0.966512 -31.702086 138.000000 123.000000 128.000000 255.000000
3.740352 4.017439 -32.814471 141.000000 123.000000 121.000000 255.000000
39.226011 12.424568 -13.753623 140.000000 142.000000 163.000000 255.000000
3.748232 -0.100290 -31.839292 121.000000 104.000000 110.000000 255.000000
4.158876 4.132306 -35.769503 149.000000 134.000000 131.000000 255.000000
4.302671 -0.190269 -32.857310 159.000000 143.000000 146.000000 255.000000
4.050288 1.349755 -32.782937 145.000000 129.000000 130.000000 255.000000
3.990521 -1.185668 -31.960586 110.000000 95.000000 100.000000 255.000000
39.982560 11.749987 -14.287246 54.000000 54.000000 77.000000 255.000000
30.138344 12.618756 -4.685940 58.000000 62.000000 74.000000 255.000000
4.094281 0.637921 -32.604356 146.000000 130.000000 131.000000 255.000000
4.068696 1.136835 -32.721636 154.000000 138.000000 139.000000 255.000000
3.327205 -4.942393 -37.487170 185.000000 179.000000 179.000000 255.000000
30.318405 13.173744 -4.802658 54.000000 58.000000 70.000000 255.000000
4.270627 2.310098 -35.675434 152.000000 134.000000 132.000000 255.000000
14.890411 2.181147 6.969147 148.000000 129.000000 133.000000 255.000000
40.477046 11.847705 -14.612924 214.000000 206.000000 224.000000 255.000000
1.993157 -5.000070 -39.577114 159.000000 162.000000 172.000000 255.000000
30.057541 12.476257 -5.230787 84.000000 88.000000 98.000000 255.000000
8.284112 1.070687 3.892914 136.000000 116.000000 114.000000 255.000000
0.158110 -3.911113 -42.382206 174.000000 176.000000 196.000000 255.000000
-13.195569 -10.245632 -45.434962 120.000000 122.000000 135.000000 255.000000
-1.128443 -5.480147 -44.600768 167.000000 173.000000 190.000000 255.000000
4.449718 -2.087617 -32.579174 140.000000 128.000000 130.000000 255.000000
4.196723 -3.455925 -31.752659 124.000000 108.000000 117.000000 255.000000
4.234197 3.676265 -33.124921 171.000000 157.000000 148.000000 255.000000
4.433022 -2.268105 -32.482450 165.000000 153.000000 156.000000 255.000000
4.068996 4.110977 -34.200483 142.000000 127.000000 122.000000 255.000000
2.187158 -3.461145 -39.283558 204.000000 205.000000 210.000000 255.000000
3.660097 -4.911374 -37.103540 149.000000 143.000000 145.000000 255.000000
29.626329 12.148922 -4.891876 20.000000 21.000000 49.000000 255.000000
0.982249 -4.134249 -41.399551 115.000000 118.000000 125.000000 255.000000
4.081678 1.142715 -32.724075 149.000000 133.000000 134.000000 255.000000
1.836156 4.536587 -30.778141 145.000000 130.000000 127.000000 255.000000
33.161579 11.710251 -7.595203 13.000000 10.000000 39.000000 255.000000
3.569917 5.656531 -32.889521 184.000000 164.000000 163.000000 255.000000
1.720374 0.498078 -40.022298 174.000000 159.000000 166.000000 255.000000
3.938398 -5.183007 -37.019475 53.000000 47.000000 62.000000 255.000000
-0.209308 -5.300268 -28.174461 213.000000 210.000000 222.000000 255.000000
1.657616 2.261200 -40.162769 202.000000 202.000000 207.000000 255.000000
-10.229752 -2.438519 -23.448794 196.000000 190.000000 204.000000 255.000000
-10.270111 1.925033 -24.017372 33.000000 34.000000 42.000000 255.000000
28.382885 10.722711 12.665690 132.000000 126.000000 128.000000 255.000000
4.724369 -3.900535 -32.923011 179.000000 165.000000 165.000000 255.000000
11.379589 6.944313 -38.197832 175.000000 178.000000 184.000000 255.000000
1.124720 -2.238522 -42.473699 162.000000 151.000000 160.000000 255.000000
2.361058 2.698891 -38.810999 179.000000 181.000000 180.000000 255.000000
-10.672159 1.062034 -23.532562 100.000000 84.000000 97.000000 255.000000
3.555383 3.937806 -32.461387 120.000000 102.000000 98.000000 255.000000
2.944767 -5.228384 -38.023114 188.000000 188.000000 195.000000 255.000000
3.441964 5.897706 -32.789665 124.000000 103.000000 98.000000 255.000000
1.331978 -3.603714 -40.125945 138.000000 139.000000 154.000000 255.000000
-4.481546 -7.587624 -25.509920 192.000000 180.000000 194.000000 255.000000
3.606383 5.741308 -32.890935 121.000000 100.000000 95.000000 255.000000
-8.237486 -5.264570 -24.418002 50.000000 51.000000 82.000000 255.000000
4.246079 -0.724124 -32.428168 172.000000 156.000000 157.000000 255.000000
-0.371203 -4.092302 -43.706660 66.000000 67.000000 82.000000 255.000000
-0.189299 -5.055494 -28.258813 69.000000 66.000000 79.000000 255.000000
3.927560 5.443636 -34.040678 172.000000 157.000000 150.000000 255.000000
3.813709 -4.743657 -37.013600 184.000000 173.000000 181.000000 255.000000
3.852785 4.088941 -33.161505 160.000000 143.000000 139.000000 255.000000
2.849077 1.727251 -38.016008 219.000000 211.000000 210.000000 255.000000
3.543232 2.279219 -32.025971 117.000000 99.000000 99.000000 255.000000
26.991397 11.545383 11.547815 112.000000 97.000000 102.000000 255.000000
2.753355 2.598443 -31.166586 119.000000 103.000000 104.000000 255.000000
3.073325 -2.964654 -30.455566 126.000000 116.000000 127.000000 255.000000
-10.842624 1.813948 -23.657187 57.000000 52.000000 62.000000 255.000000
3.014685 -4.288452 -37.981511 182.000000 181.000000 184.000000 255.000000
4.527536 -3.376845 -32.403410 178.000000 164.000000 164.000000 255.000000
4.144663 -3.115529 -36.840227 162.000000 157.000000 158.000000 255.000000
3.613875 5.980904 -33.227167 129.000000 108.000000 103.000000 255.000000
-1.323651 5.585681 -28.869449 223.000000 221.000000 230.000000 255.000000
9.593339 6.987976 -36.964115 14.000000 16.000000 29.000000 255.000000
9.963781 5.010631 -40.274932 53.000000 56.000000 71.000000 255.000000
10.521175 7.674505 -37.343647 81.000000 82.000000 103.000000 255.000000
27.282180 10.323019 11.692318 148.000000 136.000000 140.000000 255.000000
11.035368 8.118088 -38.119525 22.000000 24.000000 45.000000 255.000000
4.664370 -1.830028 -34.655631 158.000000 148.000000 147.000000 255.000000
10.410623 7.897653 -37.153072 158.000000 168.000000 183.000000 255.000000
10.445632 8.083816 -40.152577 32.000000 35.000000 50.000000 255.000000
10.808264 8.038869 -39.412607 91.000000 94.000000 99.000000 255.000000
4.256597 -3.470808 -36.679252 172.000000 161.000000 165.000000 255.000000
2.751060 5.607408 -31.775420 109.000000 91.000000 87.000000 255.000000
2.571883 3.549727 -38.305952 116.000000 112.000000 113.000000 255.000000
2.921565 4.796819 -31.671459 106.000000 88.000000 84.000000 255.000000
3.487268 4.770597 -37.158479 153.000000 142.000000 140.000000 255.000000
3.053997 4.787673 -31.841599 106.000000 88.000000 84.000000 255.000000
9.765500 7.734940 -36.810001 54.000000 59.000000 73.000000 255.000000
3.879421 6.041846 -33.894797 164.000000 146.000000 145.000000 255.000000
4.151499 1.317220 -33.167553 179.000000 165.000000 162.000000 255.000000
4.001793 1.276683 -32.619576 123.000000 109.000000 106.000000 255.000000
4.718726 -1.838013 -34.915773 181.000000 171.000000 170.000000 255.000000
28.044728 8.714883 11.715309 72.000000 66.000000 68.000000 255.000000
13.159889 2.944404 5.828773 112.000000 97.000000 100.000000 255.000000
4.180928 -1.339600 -40.071560 159.000000 157.000000 160.000000 255.000000
12.928298 2.500622 5.502360 109.000000 97.000000 100.000000 255.000000
11.663467 5.601858 5.338403 42.000000 40.000000 41.000000 255.000000
13.451536 3.452287 5.558671 123.000000 108.000000 111.000000 255.000000
12.685474 8.501258 5.715422 114.000000 100.000000 95.000000 255.000000
3.801257 7.941710 -35.771040 107.000000 96.000000 94.000000 255.000000
13.002047 5.730520 -5.136589 153.000000 152.000000 160.000000 255.000000
11.952987 9.481189 4.682874 106.000000 92.000000 96.000000 255.000000
-1.025658 -1.783420 -0.597031 129.000000 116.000000 122.000000 255.000000
